ply
format ascii 1.0
element vertex 553
property float x
property float y
property float z
end_header
-1.231837351814557 -0.7793868641329618 3.00458182517568
-1.2164705518892556 -0.7735551821416858 3.0055769362154097
-1.2164705518892556 -0.7735551821416858 3.0055769362154097
-0.9602167862031926 -1.1026641997787188 2.9148792666802374
-0.9602167862031926 -1.1026641997787188 2.9148792666802374
-0.7774173755433357 -1.5308206194057643 2.820716580908968
-0.7774173755433357 -1.5308206194057643 2.820716580908968
-0.7292931815693465 -1.1412116565119468 2.919841259786529
-0.7292931815693465 -1.1412116565119468 2.919841259786529
-0.7254391436707035 -1.1634164252806853 2.9174008311260557
-0.7196418843698981 -1.1927428605962371 2.910902526806235
-0.7213150598951673 -1.150897944149305 2.916337793139206
-0.7011718070784786 -1.3425310575090252 2.873877378133443
-0.6951311174041905 -1.0134261092117218 2.9457135986910217
-0.6933814959681623 -1.0195193126729714 2.946150450697784
-0.7073300727800295 -0.826503932207182 2.9946029982575806
-0.7073170952831281 -0.8316577180738721 2.995477047103292
-0.7073170952831281 -0.8316577180738721 2.995477047103292
-0.6855317309513325 -1.024269238871086 2.9443153295198976
-0.6855317309513325 -1.024269238871086 2.9443153295198976
-0.701577280377372 -0.826193021815013 2.993148958997969
-0.701577280377372 -0.826193021815013 2.993148958997969
-0.6842470518729249 -1.0123285841432568 2.945328580354939
-0.6842470518729249 -1.0123285841432568 2.945328580354939
-0.692879316087503 -0.8337018745111148 2.994583452360956
-0.6743558374572879 -1.024617295273956 2.9438998370409335
-0.6629619224909739 -1.0325552490112428 2.9415938917663556
-0.6584917225338938 -1.0440073979186053 2.9411622463295815
-0.6532029495631567 -1.043848488482563 2.940421443481071
-0.6532029495631567 -1.043848488482563 2.940421443481071
-0.6479218669120625 -1.0571698974446218 2.9384792166958746
-0.6477998517072743 -1.05268491911993 2.9387770470111745
-0.6408486642275139 -1.0637108750194302 2.9379762554763427
-0.636063803398545 -1.0594990388492753 2.9377540672336364
-0.636063803398545 -1.0594990388492753 2.9377540672336364
-0.6028191925627631 -1.3413923478648098 2.917590533995845
-0.5786308892927293 -0.9471081534465287 2.9677040814618465
-0.5710406976945294 -0.9530365021667931 2.9649576467221093
-0.5714655382841013 -0.9373775114948896 2.9667954291805025
-0.5693730706327824 -0.9485620758357065 2.964435732299736
-0.5693730706327824 -0.9485620758357065 2.964435732299736
-0.5665840058298922 -0.9375307639110139 2.9662225907175173
-0.5642292580237532 -0.9497177013142071 2.9666877720414098
-0.5621240584561445 -0.944622698616413 2.9629007301387333
-0.5621240584561445 -0.944622698616413 2.9629007301387333
-0.5578319259364332 -0.9461515055430784 2.965689620404734
-0.5578319259364332 -0.9461515055430784 2.965689620404734
-0.557419678594621 -0.9508086896359618 2.9654346688222057
-0.555495713520881 -0.9424581231859398 2.9653173046457857
-0.4363342503639587 -1.0718873644723461 2.9400012104841293
-0.36206731198830033 -0.23259751053873504 2.335514727134047
-0.4140200208801275 -1.0804226691883416 2.937512024701479
-0.3223474446079216 0.3088541511075098 2.532574299249099
-0.3223474446079216 0.3088541511075098 2.532574299249099
-0.3223474446079216 0.3088541511075098 2.532574299249099
-0.3179176909037187 0.352768722566946 2.5338593536038863
-0.3141837548942621 0.30406459562116506 2.529576938672887
-0.3151632503401562 0.34369455136509564 2.530890863547164
-0.3067195895492071 -1.3683258256155217 2.87871970381398
-0.3040695977064889 0.3537629761221296 2.528825902334005
-0.30052609074652015 0.34010664874536445 2.525901884401709
-0.2975178510663432 0.303405478244247 2.5249156603276384
-0.29872929980581564 -1.192952866995899 2.914610165743747
-0.2939189125018604 0.36928254962880036 2.526605176421632
-0.2894776728066779 0.3123338293446073 2.5219601180306075
-0.2894776728066779 0.3123338293446073 2.5219601180306075
-0.29084334043135235 0.37479308018735596 2.5250383906914555
-0.2845807863300663 0.24668313150691923 2.5181173650934525
-0.2893281321161235 0.3874686542331565 2.5287107334388943
-0.282442523528042 0.25467807725134683 2.5175659697608292
-0.282442523528042 0.25467807725134683 2.5175659697608292
-0.28098886138553325 0.28858991758510005 2.517741042766858
-0.2814422466365024 0.30703580215761883 2.5206715385899177
-0.27699117918152405 0.20324620617215938 2.5149259122091605
-0.27322474152034076 0.3059250293092137 2.5168155636266305
-0.27481904649599165 0.341926416833584 2.5208921434777007
-0.2727261747519844 0.38120432962890904 2.521001682584981
-0.2712808981827688 0.34723663424155826 2.520010257688054
-0.28084659188542643 -1.0809319703584546 2.9902784994896834
-0.2648815875540375 0.20015156360490924 2.5121104175355886
-0.26469935888231205 0.3524771767375927 2.519429035203629
-0.2639627703305583 0.36267265352936007 2.5197874507113567
-0.2584554089133303 0.22572642618990546 2.512438994497443
-0.2652240507060333 0.39263392960786986 2.5301201738285495
-0.2559436706325024 0.18914357814174607 2.511353071460353
-0.2547896052397181 0.20245079458297152 2.509464378913267
-0.2586497716137658 0.37029555551597454 2.5171762671326325
-0.2529734616591687 0.21492033155888607 2.5090027335830714
-0.252581616426121 0.19539277450845632 2.5100815709004314
-0.24924674356960091 0.16503374476518903 2.5083125953623666
-0.25392877741690917 0.3558879155314587 2.515880608590664
-0.24743023482449394 0.26838408736930275 2.510690283197928
-0.24195664384705626 0.19551289439625175 2.507149955498983
-0.23820986851918813 0.22023364135822004 2.505297432955706
-0.23762938674236028 0.37301380822733066 2.5132517556382683
-0.22976640456600286 0.26106997549311484 2.508582746316966
-0.2268913466642576 0.17916661252390817 2.5032760584025557
-0.2299691523357006 0.3251933220052592 2.5099993187327216
-0.2299691523357006 0.3251933220052592 2.5099993187327216
-0.22327086511119615 0.3479452214811681 2.507916916084683
-0.21264664675494613 0.18349639196683903 2.501301253228074
-0.21621273670344376 0.3436597604212726 2.5072071116394237
-0.21621273670344376 0.3436597604212726 2.5072071116394237
-0.2140955804410482 0.299906592367003 2.5072705545874316
-0.2031485595990044 -1.2724971054741878 2.89826635551877
-0.2096534410999772 0.1744492319197248 2.4996722197510435
-0.20928015268333713 0.21601350105010453 2.5025426920423643
-0.20767036041497228 0.30550635199447096 2.5063280233114518
-0.20767036041497228 0.30550635199447096 2.5063280233114518
-0.1890095716740309 -1.4498804290751692 2.9195796539844188
-0.20434411264207059 0.3131248890659036 2.5045482126945124
-0.2027588595671318 0.2656811827995899 2.5032693483993222
-0.17639784684508308 -1.6092328404764926 2.8277768754049393
-0.17639784684508308 -1.6092328404764926 2.8277768754049393
-0.198975217882343 0.24566373031807254 2.4946590774884427
-0.20066650364460237 0.29833005276072805 2.5037480314565137
-0.19574981020901722 0.2516912103943719 2.499052846644792
-0.19645105499179585 0.283512560324912 2.4999184100186733
-0.19724752595852785 0.30621330918327627 2.502604524723121
-0.1971464910794176 0.33380534311359716 2.5026965710931757
-0.1971464910794176 0.33380534311359716 2.5026965710931757
-0.19332492726996525 0.3195232817916597 2.502414588877419
-0.19404287673974416 0.35315760307050664 2.50310498623171
-0.19404287673974416 0.35315760307050664 2.50310498623171
-0.18696300953681824 0.19549787390764337 2.4973390272218405
-0.18696300953681824 0.19549787390764337 2.4973390272218405
-0.1884890677863669 0.24074432077007488 2.5002819274337984
-0.18447367385789895 0.2465406998543859 2.4977731432500323
-0.18727446039537135 0.34824290815026077 2.501743961211282
-0.18240399850506434 0.28423902747914054 2.5020442386555537
-0.1783707760467693 0.24958793337640664 2.497639049710982
-0.1783707760467693 0.24958793337640664 2.497639049710982
-0.17541966076430593 0.17796002791271423 2.493447165893683
-0.17541966076430593 0.17796002791271423 2.493447165893683
-0.1744986883965083 0.2559720028834904 2.4978204249297162
-0.13051175490890504 -1.7029000025087002 2.8091476938982654
-0.16225100289706637 0.2536905720657128 2.4935525207283322
-0.15356083208601115 0.22648967965229228 2.4925389566635108
-0.15050539805597749 0.2169573762917824 2.491293586071534
-0.14706247414556778 0.2041694121617061 2.491096557879489
-0.1394175846977629 0.2022613320804274 2.491582950277315
-0.10943943883884785 -0.04478421596291571 2.4807414013231934
-0.09728228439481046 -0.055536254086721276 2.4742690966205148
-0.09091285987173582 -0.06734767596356783 2.4716248684927846
-0.09091285987173582 -0.06734767596356783 2.4716248684927846
-0.09007433585118511 -0.05197439382339387 2.475792399047499
-0.07740451346523633 -0.06288809756029437 2.4732182254230555
-0.07740451346523633 -0.06288809756029437 2.4732182254230555
-0.07524243398809737 -0.14022458515895175 2.4766067536397762
-0.06725397416028929 -0.08623617144722881 2.4727583622734284
-0.06725397416028929 -0.08623617144722881 2.4727583622734284
-0.06651645470938045 -0.09368025302383504 2.4707079528434472
-0.06509864910783458 -0.08906125829655921 2.470771936309616
-0.06509864910783458 -0.08906125829655921 2.470771936309616
-0.06348944335043614 -0.10575352659138232 2.469559411725013
-0.06348944335043614 -0.10575352659138232 2.469559411725013
-0.08187619489723169 0.5316208605666672 2.5310354863227915
-0.05534390387396765 -0.11407999858923021 2.4687976386914707
-0.05401674909355235 -0.10821278160272832 2.4690922505355344
-0.04715592709153486 -0.1377775128250163 2.4669604498118374
-0.04306785220126745 -0.15165475134268078 2.4657747413714532
-0.03386442527916756 -0.1763122345435673 2.464243266365656
-0.03282568915503471 -0.15957148293707182 2.46387964858741
-0.033444581213751996 -0.0808765089511031 2.4675295272071
0.004015454946578496 -1.6055711162100739 2.8310841078247115
-0.02407568114913574 -0.16828969186302586 2.461936447861245
-0.023031898041014017 -0.18417504660818385 2.4602723731909695
-0.020297524954541755 -0.10126005855802786 2.4635207972408586
0.0013433470248079228 -0.09370404393720484 2.460331797464355
0.010829606368742173 -0.10219611866135028 2.458178409272011
0.014845988788843831 -0.14820423726689153 2.4539578730467086
0.013874854135174098 -0.0627403631133703 2.460570622489476
0.013874854135174098 -0.0627403631133703 2.460570622489476
0.027035728855977707 -0.10894856314290194 2.4565015413900566
0.09829907465803787 -1.6875178600732545 2.816695694640353
0.04726809388070993 -0.06509063056495054 2.4532202534430887
0.04726809388070993 -0.06509063056495054 2.4532202534430887
0.050748435794296776 -0.14907350413923373 2.4487734398087877
0.050748435794296776 -0.14907350413923373 2.4487734398087877
0.06292393054676033 -0.1395954464629621 2.4470490662669695
0.058805389292200555 0.2675512347578109 2.4581216714421465
0.06770501518241302 -0.035533091160326054 2.4485072702452353
0.07307870519984037 -0.1169098691284688 2.4434572667495744
0.07528642977853613 -0.10491788071839334 2.4446502402705277
0.07528642977853613 -0.10491788071839334 2.4446502402705277
0.08093670806106221 -0.12331480638289785 2.4424314234148903
0.08118395135226078 -0.12329708859319209 2.4421010226072477
0.08865291488538235 -0.2568920331208776 2.4399084667756914
0.08691189541174305 -0.11333530535284231 2.442629593629669
0.0867193753865943 -0.07258183386623832 2.4430980652928755
0.09389191114302887 -0.28694655007966025 2.438320482583944
0.09408199204677482 -0.13993762365155968 2.4362911646691288
0.09571952585370323 -0.10866276149693688 2.4401814941832196
0.10382229523008507 -0.25648101534367923 2.4358128866106683
0.09959963555788222 -0.012972606036699254 2.4414398749931157
0.10800633130518819 -0.2984588704749335 2.4341606671295826
0.10646775933176872 -0.23876020409415827 2.436403982576557
0.10646775933176872 -0.23876020409415827 2.436403982576557
0.10384763318964095 -0.11539048609090641 2.4377037913990898
0.11043356567826158 -0.19062800871666255 2.4329525883254375
0.11027242488123405 -0.05115190191957264 2.4418415718234514
0.11982875007500701 -0.2775874426014631 2.4325160668056727
0.11982875007500701 -0.2775874426014631 2.4325160668056727
0.11031814343525088 0.14614103633135617 2.4593980065254333
0.1235335077192876 -0.32178685494730536 2.434174244991568
0.1235335077192876 -0.32178685494730536 2.434174244991568
0.12550993885937195 -0.2814733186510582 2.4422083648655826
0.12550993885937195 -0.2814733186510582 2.4422083648655826
0.11570992636227648 0.14260177282934675 2.4561142672148533
0.11570992636227648 0.14260177282934675 2.4561142672148533
0.128763747275507 -0.3231017493198654 2.4344911941408505
0.1279996597393662 -0.24576272704271643 2.4333836952381676
0.12913051217487895 -0.27746622827606143 2.434037874170655
0.12913051217487895 -0.27746622827606143 2.434037874170655
0.12057441046590418 0.136233443813281 2.4557398967402095
0.12636313665150475 -0.07985606940695363 2.436016065660368
0.12184936212962454 0.12717798031959057 2.4524454180555026
0.1360319231527584 -0.3302253323312114 2.4339709151532714
0.12373590458164095 0.14640383250674407 2.4519180491515997
0.1335783877538076 0.11434423642834372 2.4478208064542817
0.1346798498518492 0.1437707402917671 2.4492013250853124
0.13497495547748986 0.1603617304012375 2.445859520799655
0.146146576013705 -0.24342229067771895 2.4301580518217514
0.14711356670294695 -0.2573330107793467 2.432877467616487
0.13795369683969372 0.11228109353426172 2.446189193506018
0.14930835560641142 -0.29793128193990875 2.430994809453288
0.13935489970240897 0.15402536033637057 2.445732559036732
0.14087796742635791 0.08554099977970481 2.437825018852088
0.1406534567175666 0.13978512617160158 2.4456735193759735
0.14210657639866184 0.14695568530698544 2.445140891466646
0.14698429922423112 0.12693055621912186 2.4458128252675735
0.1483953367796495 0.0934311260522955 2.4373527784029405
0.1520498312921528 0.07144482051912474 2.4341175096040084
0.1520498312921528 0.07144482051912474 2.4341175096040084
0.1504007055413924 0.14989064497558857 2.442422762276704
0.16209707511169366 -0.22928640118584953 2.429612919728856
0.1601309240136068 -0.1591172782018133 2.427949445222673
0.15450782953885356 0.14024043556804683 2.443261271009099
0.15740467038279043 0.12219938299113813 2.4413592391495884
0.15850772629407908 0.06714128691044688 2.4334335961684643
0.15850780669307024 0.07273561766263985 2.4358436560512504
0.1689930783950324 -0.23546927073170065 2.4300625839501406
0.16169577030921614 0.10455930204632624 2.4360415332766143
0.16329260402388598 0.04393282315946519 2.432248984715601
0.16263929052571585 0.07849251317560085 2.4321402535531678
0.1718533149434355 -0.2292709541938924 2.429243649070847
0.16314299210770922 0.13672288052236964 2.4395567760824934
0.1656227528967613 0.06378697984442573 2.4335631002286617
0.1656227528967613 0.06378697984442573 2.4335631002286617
0.1660468340356737 0.0561319931134288 2.432498162578026
0.16713302264164248 0.07638703471533544 2.4320077998572756
0.16672223826576224 0.10228448811972933 2.4328172728940363
0.17904602535995426 -0.3006504957886307 2.433291017619323
0.17904602535995426 -0.3006504957886307 2.433291017619323
0.170740590029515 0.03621667008399095 2.4291451104539123
0.1723256259706528 0.030017421750266903 2.428835713775762
0.1799657152450028 -0.22609709495171115 2.429249497700198
0.1746456509104162 0.008583824254641726 2.4270694643043633
0.1746456509104162 0.008583824254641726 2.4270694643043633
0.1748151922871407 0.024328359621347398 2.428246373325911
0.17330226777201196 0.09754236979216213 2.4328021807813554
0.17330226777201196 0.09754236979216213 2.4328021807813554
0.17625512785707495 0.04680628289534906 2.4294829335701964
0.1778152058784589 0.01593817469999606 2.425293348802657
0.17749003641451896 0.0875021533834317 2.4283210539324975
0.17802989945495568 0.0936832092526235 2.42824688836156
0.18062215312246072 0.004691145450750497 2.4243783881292384
0.17852741375184042 0.10680996630776822 2.430719838915863
0.17852741375184042 0.10680996630776822 2.430719838915863
0.1840573892875158 -0.09580726781562744 2.4192728118039737
0.18864082733117316 -0.2205235215482219 2.431172056264354
0.19060859282011605 -0.26538380929937877 2.4354611463754434
0.19060859282011605 -0.26538380929937877 2.4354611463754434
0.1814357636595381 0.07796380733451357 2.427279869553896
0.19313372785080496 -0.2891862579020016 2.432665401227557
0.18526483408469743 -0.029193290351026562 2.421752190780257
0.18607275222239983 -0.03562861897156458 2.4224768014794478
0.1854521525316212 -0.006164151868113561 2.4233551615545457
0.18449106058325493 0.060403603637599196 2.427807826913802
0.18632690553609843 0.013392159752626658 2.4237134685402557
0.19353848603791585 -0.20541277798934415 2.425522833285771
0.19353848603791585 -0.20541277798934415 2.425522833285771
0.18561404064226333 0.07405284894880448 2.4240397314795055
0.1888103000778705 -0.04286827649205192 2.4225988125816174
0.18642841433808077 0.06677412483099106 2.4237613006941525
0.18803584284548425 0.035421712646623124 2.4258277010690583
0.1868996151653908 0.07939186015708276 2.4238088871248746
0.1874017958330119 0.08602575746373414 2.425451608523387
0.19293968007604795 0.020738678291446672 2.4222403603575775
0.1952169376930758 -0.05180598116170011 2.4210353679240226
0.19415805654237966 0.029322804818070793 2.422400418303443
0.19432376245799565 0.02935824007488714 2.422241136195778
0.19600135766662843 -0.027783553915189194 2.420036931126764
0.20425957588555294 -0.24616830761410163 2.4312135945308935
0.19905756750615972 -0.03871998429310922 2.4210831450332875
0.2002331566937911 -0.0012836907913577416 2.420030990974757
0.20249734502976427 -0.06936873735304325 2.42126730354047
0.2030574477828168 -0.05641334744389425 2.4208955036645117
0.2030574477828168 -0.05641334744389425 2.4208955036645117
0.20194153861508252 0.018098112985914492 2.419103259857069
0.2077355948715013 -0.11238036544331242 2.425423809658047
0.20796625825509155 -0.08456267488943549 2.42129873916112
0.20547141584368162 0.006027072711968592 2.41871696831753
0.20547141584368162 0.006027072711968592 2.41871696831753
0.21188376921921012 -0.12195998466099293 2.4264230140846728
0.20894132286372546 0.0006713877229892847 2.4183573298572516
0.21007163800662473 -0.03569794053400459 2.420012450235828
0.21342672920188976 -0.11632575712086331 2.425565015593324
0.20913963411999037 0.02607839667791584 2.4177145736297847
0.21330046714210757 -0.10144797496831862 2.4230770452659134
0.21330046714210757 -0.10144797496831862 2.4230770452659134
0.21085728682265453 0.020797474040520972 2.417797649619865
0.21366866812504717 -0.053125243142029904 2.4213600862989377
0.21366866812504717 -0.053125243142029904 2.4213600862989377
0.2141963313953907 -0.028148553645573404 2.4183405399603544
0.2141963313953907 -0.028148553645573404 2.4183405399603544
0.21829226517561218 -0.08269146545463105 2.4225755096622805
0.219028810742959 -0.06245968450776876 2.430902578718562
0.2220372891642134 -0.15736318975520283 2.429796082732523
0.22197035721081473 -0.11257274627621613 2.4262458488767664
0.22197035721081473 -0.11257274627621613 2.4262458488767664
0.22046943712308215 -0.05041862199778048 2.421872406483854
0.2199911416368035 -0.02642082590267806 2.419202675469761
0.22351271222670918 -0.11890237870767806 2.42659923440399
0.21988176106173568 -0.01620391993918962 2.4171236873174045
0.22314589114935549 -0.09848928583398796 2.425644445486759
0.22314589114935549 -0.09848928583398796 2.425644445486759
0.22516021893497662 -0.15396669197174676 2.427576913770826
0.22591229375187988 -0.1652237075094433 2.429116187347337
0.226202349512177 -0.1597076505829662 2.429626313494711
0.226202349512177 -0.1597076505829662 2.429626313494711
0.2267718690659085 -0.14877043450966398 2.426913192444149
0.22539421630577966 -0.03674143536525244 2.4205862402274287
0.23059476832842762 -0.16677375481276027 2.431114377655505
0.23138506632020692 -0.14985156840113006 2.4274083282337866
0.23101341680183954 -0.0957887189670316 2.4261305740735684
0.232896324972913 -0.14254162337945317 2.428571884096299
0.2289444906299537 -0.030371691570172908 2.419315281091172
0.23075424697646488 -0.0471034443371079 2.4201093557264763
0.23075424697646488 -0.0471034443371079 2.4201093557264763
0.23687671213294267 -0.16543066710878676 2.429670299442122
0.23264766536371076 -0.033278705470417516 2.4190738432775514
0.23385776655220925 -0.05391780405235573 2.4234303753094397
0.2390393570157887 -0.14875410805180128 2.429093600281377
0.23883641362251762 -0.14336791193641465 2.429524069328069
0.23703497453248645 -0.07393450386420503 2.425048517792746
0.23899062032424936 -0.09391133102685963 2.4270045320334983
0.24181409614460975 -0.1653422210190169 2.4325355095975976
0.2429811635516013 -0.15121427915544483 2.429836908664669
0.2429811635516013 -0.15121427915544483 2.429836908664669
0.2442843945901993 -0.1533109020621346 2.4293607174046814
0.24589282136203516 -0.20492157112450268 2.431409446445557
0.24589282136203516 -0.20492157112450268 2.431409446445557
0.2438499471153142 -0.1464238397171295 2.4282900938452183
0.24519530711796036 -0.16931618075207158 2.4277586761175596
0.24505847831873523 -0.15644497233520982 2.4305570672311014
0.24481069341093958 -0.14091255173424452 2.428640289581179
0.24507801508637525 -0.1131621488530555 2.428647265266061
0.24507801508637525 -0.1131621488530555 2.428647265266061
0.24524187923417848 -0.10798923591193653 2.429098519291275
0.2476186872423185 -0.17262287365352239 2.4306454629650234
0.2503633205572284 -0.21734622198719947 2.432640463916843
0.2528357911560631 -0.1366212512881216 2.4299709759290153
0.2553454615050286 -0.20602391789925867 2.43249555066368
0.2568142990903706 -0.21868631129770794 2.431953114580534
0.256033481146233 -0.19111516434386183 2.431231022726269
0.2585765074430256 -0.2129458086180289 2.4323192281697845
0.2585765074430256 -0.2129458086180289 2.4323192281697845
0.2569881833238889 -0.13996748279213206 2.4293743000263905
0.261372276932716 -0.2015635441835588 2.4332082163886692
0.263575598126 -0.15511732126259647 2.432430027960099
0.265677765278247 -0.20920329381870703 2.432459833101969
0.2653993989018208 -0.19200420924665448 2.4292638757700726
0.2653993989018208 -0.19200420924665448 2.4292638757700726
0.26585377606287985 -0.15042724744281832 2.4295942899061305
0.2703773673187665 -0.21164459494094956 2.431858910419184
0.2727730447603393 -0.2576556457086949 2.4322760614596435
0.2722982397819982 -0.20567653146135856 2.4322097515157908
0.2722982397819982 -0.20567653146135856 2.4322097515157908
0.2722982397819982 -0.20567653146135856 2.4322097515157908
0.2722982397819982 -0.20567653146135856 2.4322097515157908
0.26231935736564355 0.18181559877887155 2.4130779994760436
0.26375978827239027 0.1539417895410479 2.41172799699516
0.2762067364753025 -0.1947775133909351 2.434014980229956
0.27911597358876633 -0.24648430323789808 2.431734756355718
0.27855216489671036 -0.208017659802343 2.4304854604289106
0.28022535653817177 -0.2329782054958934 2.4323781938612314
0.28211386610471295 -0.2593154937940758 2.4319876065880854
0.28211386610471295 -0.2593154937940758 2.4319876065880854
0.2826226934662932 -0.26902582919680834 2.4312046542032975
0.2809198968706587 -0.19567927240898744 2.43341319804128
0.2809198968706587 -0.19567927240898744 2.43341319804128
0.2843180348430597 -0.24591438183786674 2.4315837851049684
0.2830129415228937 -0.20905240567104225 2.4293469010967774
0.2830129415228937 -0.20905240567104225 2.4293469010967774
0.37809484865414666 -1.6908416347481794 2.8866806653199224
0.2876411453565935 -0.27828433647628653 2.4305851747794507
0.28604239926207836 -0.19839225991575185 2.4312456598521854
0.2902421798015695 -0.2561830309402372 2.4316894339459703
0.2902421798015695 -0.2561830309402372 2.4316894339459703
0.2956472945305054 -0.2610243186005917 2.430162107494331
0.2951859273599987 -0.2449928540400353 2.430914095047576
0.2968475435328385 -0.23898520398915066 2.4301313545802286
0.29811825798272756 -0.2341153126470843 2.430217685528876
0.2996341449381223 -0.2757936179624708 2.430559810919582
0.2995853863650446 -0.2447736136484274 2.4304433809929797
0.30426759582915575 -0.4180640697352651 2.422974478578414
0.2871436952528715 0.12502304611833695 2.408864288729972
0.3014024798891042 -0.2706284741776184 2.4290323145184503
0.3014024798891042 -0.2706284741776184 2.4290323145184503
0.30316642008922157 -0.2621779625326371 2.4298313661153172
0.30316642008922157 -0.2621779625326371 2.4298313661153172
0.3046873947864036 -0.24516195406355287 2.42954280006052
0.31631245613118114 -0.33368099956812086 2.424639559931592
0.3170299424526304 -0.3558948264744568 2.4265696786336175
0.31509059173435877 -0.24957179423337084 2.4265666961712427
0.3021129872915368 0.11632468644706341 2.409447811345758
0.32026818594694745 -0.26881410796990757 2.4272770908712733
0.3208122896206374 -0.25175952018471554 2.4286207216285662
0.31217848708930157 0.062769032308865 2.418013504316064
0.3188249591916079 0.08798243331308492 2.415124154312945
0.32259662953826 0.06815202899427121 2.417371969491645
0.33330207900033576 0.0741778837677542 2.41644524544639
0.33970165086174753 -0.028350222680596643 2.4125056009959835
0.3448838559838705 -0.025496896681485533 2.4116311867204545
0.3592821158656591 -0.473128068882868 2.415907297766724
0.3446048942487451 0.054450266731630954 2.414146397848457
0.3511333323646651 -0.014037683816423835 2.4108054525775544
0.35755316446549384 -0.01682477877464846 2.40846056583122
0.3618176419458762 -0.012775227480595387 2.4097640918072374
0.3636134695440286 -0.02424636075150114 2.40870531563977
0.3656222341272339 -0.06595969191992385 2.406177243139956
0.36609393895140285 -0.05975111968681657 2.408132476955951
0.36817352742177645 -0.018212009334346663 2.4085836201236326
0.3686190258849361 -0.027435314778011647 2.407373373552627
0.3729418794418365 -0.05937332729772597 2.404830036767885
0.3743526119846306 -0.023336009435678616 2.407324732565367
0.3757680172544067 -0.00449670084749623 2.4061641807319187
0.3788729851560256 -0.09950233795300754 2.403299483833192
0.3806967869761838 -0.09271116220897066 2.4043287187589075
0.39189548032115895 -0.446721298930901 2.407352317121396
0.39396114788539355 -0.490142807626787 2.4082492777663123
0.3939027890967858 -0.462870208817946 2.404867555726872
0.3836537485025649 -0.08934965212767691 2.401593380896851
0.3836537485025649 -0.08934965212767691 2.401593380896851
0.38492640471500356 -0.09635175837568644 2.4035846238831398
0.3850257133175176 -0.10296039315546254 2.4013011817160197
0.38550834238248394 -0.08607679387118211 2.3995373026185964
0.3898172311502259 -0.12435009896965551 2.401446505518695
0.38992990899075125 -0.12157028826959583 2.4010576704957822
0.389641678062636 -0.10285165365775917 2.4001768079131724
0.3909160244394221 -0.12709217008895365 2.4005426101590297
0.39112117736555707 -0.13061932540542937 2.4009796652247006
0.4013649719387539 -0.456849472540541 2.4016235152872545
0.4023922189970123 -0.4519083395742493 2.3999340108898077
0.39418798407128874 -0.13097559656594002 2.4001940180741683
0.3933083724795664 -0.09403248978202036 2.400969431233153
0.3933083724795664 -0.09403248978202036 2.400969431233153
0.3932363362356219 -0.08126541322435578 2.3999696838589766
0.3940966677928274 -0.1021509096354799 2.399929481423671
0.39505517378551397 -0.1073192951779751 2.398708320293912
0.39505517378551397 -0.1073192951779751 2.398708320293912
0.396119281267796 -0.11921014692070107 2.3988557615632646
0.3960191595832936 -0.1134862817437388 2.399498097105901
0.3983933567019822 -0.13163294188615304 2.399493681895321
0.39808389724530213 -0.10199464944002924 2.3984234856204187
0.39756742268107675 -0.08398779542223411 2.397630573935582
0.4000772605365113 -0.14140555609190705 2.3983630865929118
0.4000772605365113 -0.14140555609190705 2.3983630865929118
0.4004102133889736 -0.14568587187764365 2.398186553201053
0.4004102133889736 -0.14568587187764365 2.398186553201053
0.39966133239492374 -0.10846846454836141 2.3981455618642764
0.3996105185205273 -0.07863667530389049 2.398072842173159
0.4010472050010545 -0.11601083144467837 2.3974947311456294
0.40327060346659865 -0.1439289545404716 2.3977593381597737
0.40327060346659865 -0.1439289545404716 2.3977593381597737
0.40232896710693566 -0.10126605020743554 2.3981928950844735
0.40296310235232735 -0.09576095984311087 2.3994420451164906
0.40371858327176413 -0.08057881885479075 2.3958201790576026
0.4056387466106043 -0.1379169736512946 2.39526119659095
0.4066588871076379 -0.14305116897086115 2.3977846034119645
0.4187712404275279 -0.5813448493121247 2.393270670648983
0.4061745247043404 -0.11404676819889646 2.3977929873657233
0.40704801498013754 -0.11834645604537687 2.395803397796564
0.4071989102300297 -0.1288770099689315 2.3957317203121296
0.40810318798914974 -0.15766947048539676 2.395399830390129
0.40810318798914974 -0.15766947048539676 2.395399830390129
0.40677258521415066 -0.07042940212986555 2.397245369356999
0.40865864426909854 -0.14951713122586752 2.3954850890442865
0.40819212128226956 -0.09798298408066128 2.3969158869051843
0.41018593347957877 -0.16795288701828381 2.395222531040188
0.4097442889029283 -0.09295008222504769 2.3974453356429226
0.41166252937128617 -0.1369424314448461 2.39609743836427
0.41166252937128617 -0.1369424314448461 2.39609743836427
0.412317048207734 -0.14113457606574475 2.3956804550444697
0.42575930270894013 -0.5952553772734908 2.3901518741140824
0.41354651514701407 -0.15423140734260243 2.393952243063576
0.41354651514701407 -0.15423140734260243 2.393952243063576
0.41322459939780537 -0.1202024479329699 2.3955638923195197
0.41476986211798855 -0.1352626840623214 2.394264414984503
0.4152772563004792 -0.12467281784919294 2.3945544581432343
0.41669915492472953 -0.17671860668934847 2.3932659148608577
0.41599944952669815 -0.15075318965196033 2.392914382065638
0.41599944952669815 -0.15075318965196033 2.392914382065638
0.4165334531517708 -0.16089201086740476 2.3930705636315395
0.4180066340499764 -0.13370002811783704 2.3938085411530214
0.42017937914744147 -0.18909324090725557 2.39121183086847
0.41938554886301765 -0.12267386984671576 2.393168297331413
0.4203699037746741 -0.16284610871262648 2.3918214774551503
0.4207414057190266 -0.14357313168447075 2.3918683076301184
0.4227539263170057 -0.1974058642996003 2.391506122377717
0.4227132965992183 -0.17452161715682343 2.3908311634989237
0.42322230501026675 -0.18072234345520655 2.3915764472170786
0.4237824435255363 -0.13326816139228262 2.391289873794669
0.4237824435255363 -0.13326816139228262 2.391289873794669
0.4253503503532324 -0.18714107236334573 2.390709042915453
0.4251220524801142 -0.16091852263801787 2.3911374450497487
0.4251220524801142 -0.16091852263801787 2.3911374450497487
0.4269164388487142 -0.175014766916179 2.391159437155194
0.4263385113030039 -0.1303304195514585 2.3919565640913323
0.42972460461139517 -0.14446144751035223 2.3902527424658926
0.43530136597233593 -0.1979620695195225 2.388283015213857
0.43530136597233593 -0.1979620695195225 2.388283015213857
0.4348009007212445 -0.1666346608254019 2.388535916232218
0.4348009007212445 -0.1666346608254019 2.388535916232218
0.4370668213981208 -0.18409622382978028 2.3874529040590526
0.43699365194926615 -0.17177580999316672 2.388219627234589
0.4389370913666094 -0.1982000463935056 2.386785159975115
0.4423135358465485 -0.1960494851569288 2.3869940351845442
0.4432673693278761 -0.19185017959770728 2.3872793792355798
0.4477170076675792 -0.20112107082490577 2.385059245661291
0.448494589626824 -0.18946411275485484 2.3862615394270152
0.45096576971177305 -0.19239741548172234 2.384742168485267
0.4892886472228371 -0.3427395796598072 2.369061096903769
0.5223669489285925 -0.49700072767010006 2.3520535276840424
0.5231887483276307 -0.3586373051629323 2.3611441177318633
0.5278636442341897 -0.34568935876413037 2.365590954834907
0.5349492493658883 -0.34762386940050594 2.364426662672646
0.5455429502105739 -0.5160795217572013 2.3484728772989896
0.5470580145214625 -0.3024445017676143 2.370962152716561
0.5503856785452845 -0.34639838270946555 2.3629634693905825
0.551992009660777 -0.46051776872975825 2.35068095559962
0.5551433273947413 -0.45081362194938596 2.3542533903084566
0.554855308738108 -0.46788357248447665 2.35003663587315
0.5593752189350053 -0.462389330516929 2.351309047777702
0.5626679180684434 -0.46748057340734556 2.348649040232406
0.5655597017303595 -0.4620212390650029 2.348423893785165
0.5655597017303595 -0.4620212390650029 2.348423893785165
0.570418845525469 -0.45356406346826883 2.3499991673201683
0.588694425481321 -0.3367128687032443 2.3586491374364917
0.6171750888200447 -0.4337705511146222 2.3474617244852642
0.6574307603690888 -0.5672026102671881 2.3298500448327304
0.6574307603690888 -0.5672026102671881 2.3298500448327304
